# .PCD v0.7 - Point Cloud Data file format
VERSION 0.7
FIELDS x y z normal_x normal_y normal_z curvature
SIZE 4 4 4 4 4 4 4
TYPE F F F F F F F
COUNT 1 1 1 1 1 1 1
WIDTH 602
HEIGHT 1
VIEWPOINT 0 0 0 1 0 0 0
POINTS 602
DATA ascii
0.69409752 0.42847842 -0.10694191 -0.00052971934 0.00052971934 -0.00066241581 0
0.69386357 0.4284572 -0.10695854 -0.00049978646 0.00057939137 -0.00064383156 0
0.69366252 0.42842841 -0.10705963 -0.00042122306 0.00056795345 -0.00070710678 0
0.6933769 0.42841902 -0.10694256 -0.000542861 0.00049202039 -0.00068060111 0
0.69320941 0.42838258 -0.1071302 -0.00051212008 0.00048757874 -0.00070710678 0
0.69285554 0.42838895 -0.10683593 -0.00027143405 0.00038540672 -0.00088192133 0
0.69278169 0.42833093 -0.10726574 -0.00011459047 0.00022765213 -0.00096697645 0
0.69253778 0.428312 -0.10725573 9.9003482e-06 0.00013421586 -0.00099090266 0
0.69233698 0.42828315 -0.10735705 0.00017835345 7.9058656e-05 -0.00098078535 0
0.69218802 0.42824233 -0.10759339 0.00035257623 -0.00011647536 -0.00092850608 0
0.68196219 0.42730772 -0.10825989 -0.00058412622 0.00052942097 -0.00061523169 0
0.68176627 0.42727774 -0.10837063 -0.00048033422 0.0006154913 -0.00062485965 0
0.68151563 0.42726135 -0.10833105 -0.00021438918 0.00055578304 -0.00080320763 0
0.6813916 0.42721337 -0.10863969 -0.00027527343 0.00058201683 -0.00076516729 0
0.68117237 0.42718914 -0.10868636 -0.00033429838 0.00052791473 -0.00078073726 0
0.68093312 0.42717001 -0.10867754 -0.00049382658 0.00049382658 -0.00071573083 0
0.68064928 0.42716208 -0.10854539 -0.00066966057 0.0004013791 -0.00062485965 0
0.68047512 0.42712656 -0.10871616 -0.00062739523 0.00048962393 -0.00060551113 0
0.68023151 0.42710856 -0.10869452 -0.0006189855 0.00039196809 -0.00068060111 0
0.67989719 0.42711353 -0.10842112 -0.00059213332 0.00041702733 -0.0006895407 0
0.67978525 0.42706221 -0.10876468 -0.00034180438 0.00051154627 -0.00078834646 0
0.67948973 0.42705745 -0.10859767 -0.00043143347 0.00058172061 -0.0006895407 0
0.67930871 0.42702365 -0.10874942 -0.00050851039 0.00056105468 -0.00065317284 0
0.67904544 0.42701074 -0.10867169 -0.000349282 0.00065346045 -0.00067155901 0
0.67878938 0.42699608 -0.10861376 -0.00040914194 0.00068261207 -0.00060551113 0
0.67860734 0.42696249 -0.10876247 -0.00041355885 0.00065308064 -0.00063439325 0
0.67840135 0.42693502 -0.10884419 -0.00045405483 0.00055326748 -0.00069837621 0
0.67810839 0.42692986 -0.10868213 -0.0005245338 0.00049939763 -0.0006895407 0
0.67787141 0.4269104 -0.1086764 -0.00039610558 0.0005075623 -0.00076516729 0
0.67761362 0.4268963 -0.10861209 -0.00050954951 0.00037790751 -0.00077301048 0
0.67753243 0.42683673 -0.10904416 -0.00063930813 0.0003218007 -0.00069837621 0
0.67721391 0.42683828 -0.10880861 -0.00059226208 0.00031657057 -0.00074095122 0
0.67707896 0.42679247 -0.10909 -0.00066211366 0.00029349473 -0.0006895407 0
0.67671984 0.42680472 -0.10873857 -0.00045422575 0.00031990185 -0.00083146966 0
0.67652309 0.42677492 -0.10884532 -0.00055223273 0.00033099559 -0.00076516729 0
0.67636096 0.42673612 -0.10905012 -0.00063553493 0.00038092496 -0.00067155901 0
0.67601466 0.42674521 -0.10873297 -0.00056375784 0.00039704304 -0.00072424713 0
0.6759007 0.4266938 -0.10907444 -0.00055838079 0.00037309807 -0.00074095122 0
0.67568898 0.42666787 -0.10913852 -0.00045106863 0.00038909449 -0.00080320763 0
0.67536187 0.42667219 -0.10887429 -0.00041917965 0.00037992219 -0.00082458934 0
0.67521536 0.42662919 -0.10912374 -0.00054394343 0.00034444823 -0.00076516729 0
0.67508578 0.42658171 -0.109422 -0.00049768854 0.0004084424 -0.00076516729 0
0.67481625 0.42657098 -0.10932073 -0.00062288414 0.00041619781 -0.00066241581 0
0.67463827 0.42653617 -0.10948101 -0.00057488045 0.00042636026 -0.00069837621 0
0.67434645 0.4265314 -0.10931525 -0.00053663168 0.00048637445 -0.0006895407 0
0.67408347 0.42651904 -0.10923168 -0.00051211996 0.00051211996 -0.0006895407 0
0.67387384 0.42649263 -0.1093007 -0.00038142432 0.00054158096 -0.0007491365 0
0.67357463 0.42648998 -0.10911223 -0.0005969429 0.00046585873 -0.00065317284 0
0.67336726 0.42646301 -0.10918733 -0.00053654931 0.00041872717 -0.00073265436 0
0.67308378 0.42645627 -0.10904291 -0.00048635103 0.00036070234 -0.00079583697 0
0.67294765 0.42641032 -0.10932353 -0.00030927884 0.00034123653 -0.0008876397 0
0.67274845 0.42638111 -0.10942218 -0.00026783321 0.00036113121 -0.00089322432 0
0.67255199 0.42635119 -0.10952869 -0.00045099141 0.00049759226 -0.00074095122 0
0.67228878 0.42633915 -0.10944185 -0.00059574441 0.00062572974 -0.00050353835 0
0.67200744 0.42633206 -0.10930184 -0.00055948488 0.00068173441 -0.00047139684 0
0.67189527 0.42627949 -0.10965291 -0.00040727406 0.00076195598 -0.00050353835 0
0.67161381 0.42627245 -0.10951206 -0.00031555674 0.00076182117 -0.00056573178 0
0.67134291 0.42626262 -0.10940138 -0.00022982022 0.00069567573 -0.00068060111 0
0.67118537 0.42622221 -0.10962078 -0.00033101015 0.00058431464 -0.00074095122 0
0.67100662 0.42618743 -0.10977885 -0.00056725263 0.00048931548 -0.00066241581 0
0.67071366 0.4261837 -0.10960272 -0.00062739523 0.00048962393 -0.00060551113 0
0.67050427 0.4261573 -0.10967055 -0.00062088796 0.00046048168 -0.00063439325 0
0.670151 0.42617008 -0.10931668 -0.00046749593 0.00054195774 -0.00069837621 0
0.6700713 0.42610836 -0.10976484 -0.00032914747 0.0005197805 -0.00078834646 0
0.66986966 0.42607984 -0.10985526 -0.00038353004 0.00051713031 -0.00076516729 0
0.66951454 0.42609331 -0.109494 -0.00056094112 0.00041602211 -0.00071573083 0
0.66939527 0.42604226 -0.10982671 -0.00065960863 0.00041769235 -0.00062485965 0
0.66912574 0.42603242 -0.10971656 -0.00069073949 0.0004374058 -0.00057580817 0
0.66879654 0.42603904 -0.10942939 -0.00065006211 0.00050731329 -0.00056573178 0
0.66865593 0.42599374 -0.10969958 -0.00037072346 0.0005263869 -0.00076516729 0
0.66845131 0.42596608 -0.10978046 -0.00034944597 0.00055183534 -0.00075720885 0
0.66831505 0.42591956 -0.11006436 -0.00030799207 0.00054368208 -0.00078073726 0
0.66800022 0.42592242 -0.10981777 -0.00042603243 0.00051912206 -0.00074095122 0
0.66777682 0.42589992 -0.10984275 -0.00048036821 0.00058533036 -0.00065317284 0
0.66760123 0.42586425 -0.11000982 -0.00033314002 0.00066183548 -0.00067155901 0
0.66733181 0.42585462 -0.10989681 -0.00053402421 0.00061908248 -0.00057580817 0
0.6671927 0.4258087 -0.1101732 -0.00053859939 0.0006243863 -0.00056573178 0
0.666839 0.42582273 -0.10980764 -0.00049529434 0.00060351792 -0.00062485965 0
0.66667569 0.42578354 -0.11001119 -0.00039029872 0.00047558043 -0.00078834646 0
0.66642857 0.42576784 -0.10996386 -0.00014644659 0.00035355325 -0.00092387962 0
0.666251 0.42573258 -0.11012504 -6.1927291e-05 0.00024722758 -0.00096697645 0
0.66606247 0.42570046 -0.11025348 -0.00012361548 0.00019521014 -0.00097293995 0
0.66588795 0.42566431 -0.11042401 -8.8788816e-05 0.00020030433 -0.00097570219 0
0.66562021 0.42565447 -0.11031374 -7.3812946e-05 0.00020629332 -0.00097570219 0
0.66548479 0.42560723 -0.11060247 -9.57264e-06 0.00019485531 -0.00098078535 0
0.66529894 0.42557424 -0.11073932 6.5723943e-05 0.00018368612 -0.00098078535 0
0.66512114 0.4255389 -0.11090067 0.00011925644 0.00016933114 -0.00097831734 0
0.66494203 0.42550394 -0.11105826 8.4988671e-05 0.00013421178 -0.00098730146 0
0.66477013 0.42546687 -0.11123791 8.0137288e-05 5.643905e-05 -0.00099518476 0
0.66455448 0.42544228 -0.11128476 0.00014514221 -2.1529777e-05 -0.00098917657 0
0.66440785 0.42539793 -0.11154148 0.00018722651 -8.8551467e-05 -0.00097831734 0
0.66421956 0.42536545 -0.11167195 0.0002247714 -0.00012014276 -0.00096697645 0
0.66407508 0.42532036 -0.11193612 0.00022771352 -0.00016037385 -0.00096043048 0
0.66387403 0.42529151 -0.11202779 0.00033946184 -0.0001504731 -0.00092850608 0
0.66375744 0.42523831 -0.11237785 0.00040522858 -0.00016785116 -0.00089867448 0
0.70957178 0.43012351 -0.1055893 -0.00071983435 0.0006853391 -0.00011022221 0
0.70940322 0.43008801 -0.10577396 -0.00062505354 0.00076162996 -0.00017096194 0
0.70895499 0.43010986 -0.1052914 -0.00060341018 0.0007731985 -0.00019509032 0
0.70881724 0.43006808 -0.10554919 -0.00061538129 0.00074984436 -0.0002429802 0
0.7084235 0.43007892 -0.10519508 -0.00065734325 0.00069042901 -0.00030200602 0
0.70815384 0.43006426 -0.10513702 -0.00073552161 0.00057400658 -0.00035989506 0
0.7079252 0.43004122 -0.10517707 -0.00067859283 0.00050327851 -0.00053499773 0
0.70775849 0.4300054 -0.10536543 -0.00044184233 0.00044184233 -0.00078073726 0
0.70742035 0.43000498 -0.10514227 -0.00032650345 0.00057635922 -0.0007491365 0
0.70716023 0.4299885 -0.10510591 -0.00027123807 0.00057348469 -0.00077301048 0
0.70700341 0.42995059 -0.10531786 -0.00046186295 0.00053542753 -0.00070710678 0
0.70678532 0.42992538 -0.10538259 -0.00066779862 0.0003569457 -0.00065317284 0
0.7064929 0.42991567 -0.10526773 -0.00066777173 0.00025758799 -0.00069837621 0
0.70623803 0.42989814 -0.10524312 -0.00051196071 0.00015530159 -0.00084485364 0
0.70607156 0.4298622 -0.105432 -0.00033447932 0.00024806667 -0.00090916798 0
0.7059232 0.42982242 -0.10566494 -0.00029833414 0.0002573448 -0.00091911387 0
0.70559812 0.42981964 -0.10546973 -0.0004107588 0.00043143329 -0.00080320763 0
0.70542622 0.42978477 -0.10564581 -0.00051806471 0.00051806471 -0.00068060111 0
0.70514894 0.42977202 -0.10556582 -0.0004785498 0.00055477221 -0.00068060111 0
0.70479286 0.42977595 -0.10529366 -0.00051211996 0.00051211996 -0.0006895407 0
0.70465076 0.42973477 -0.10554203 -0.00045038926 0.00047305846 -0.00075720885 0
0.70439672 0.42971724 -0.10551754 -0.0004129248 0.00035619139 -0.00083822478 0
0.70428663 0.42966923 -0.10584423 -0.00056018948 0.00031734339 -0.00076516729 0
0.70406187 0.42964548 -0.10589132 -0.00055183546 0.00034944582 -0.00075720885 0
0.70380634 0.42962825 -0.10586289 -0.00054666388 0.00040543338 -0.00073265436 0
0.70359051 0.42960262 -0.10593143 -0.00046900086 0.00051746261 -0.00071573083 0
0.70320177 0.42961383 -0.10557571 -0.00029099442 0.00061525597 -0.00073265436 0
0.70307195 0.4295699 -0.1058549 -0.00044034031 0.00056424382 -0.00069837621 0
0.70293045 0.42952842 -0.10610572 -0.00049382658 0.00049382658 -0.00071573083 0
0.70265806 0.42951488 -0.10603461 -0.00051535701 0.00044455007 -0.00073265436 0
0.70246971 0.42948338 -0.10617033 -0.00043743997 0.00045945743 -0.00077301048 0
0.70218998 0.42947146 -0.10608062 -0.00039009505 0.00040972952 -0.00082458934 0
0.70191222 0.42945918 -0.10599539 -0.000556449 0.00039189559 -0.00073265436 0
0.70163184 0.4294475 -0.10590318 -0.00058847346 0.00043644145 -0.00068060111 0
0.70140392 0.42942458 -0.10594031 -0.00046749593 0.00054195774 -0.00069837621 0
0.70126581 0.42938218 -0.10620025 -0.00027123807 0.00057348469 -0.00077301048 0
0.7011019 0.42934537 -0.10639611 -0.00018685994 0.00056563312 -0.00080320763 0
0.70089048 0.42931882 -0.10647449 -0.0003766595 0.00062841846 -0.00068060111 0
0.70060956 0.42930734 -0.10637972 -0.00049529434 0.00060351792 -0.00062485965 0
0.7003749 0.42928582 -0.10639986 -0.00057095761 0.00054359675 -0.00061523169 0
0.70007837 0.42927787 -0.10626546 -0.00058533036 0.00050490943 -0.00063439325 0
0.69989765 0.42924464 -0.10641965 -0.00049939775 0.00052453368 -0.0006895407 0
0.69962662 0.42923114 -0.10634831 -0.00053205731 0.00039460041 -0.0007491365 0
0.69943142 0.42920107 -0.10646608 -0.0004283771 0.00036952063 -0.00082458934 0
0.69919825 0.42917934 -0.10648897 -0.00049415865 0.00036649287 -0.00078834646 0
0.69892156 0.42916715 -0.10640237 -0.00054666388 0.00040543338 -0.00073265436 0
0.69866866 0.42914978 -0.10637519 -0.00050579704 0.0004815587 -0.00071573083 0
0.69847941 0.42911839 -0.10650781 -0.00055477221 0.0004785498 -0.00068060111 0
0.69823277 0.42909968 -0.10649589 -0.00042023204 0.00051205419 -0.0007491365 0
0.69807041 0.42906237 -0.1066961 -0.00049292331 0.00046930191 -0.00073265436 0
0.69782329 0.42904377 -0.10668269 -0.00045099141 0.00049759226 -0.00074095122 0
0.69750118 0.4290418 -0.10647979 -0.00047975263 0.00045676241 -0.0007491365 0
0.69736016 0.42899969 -0.10673389 -0.00061607832 0.00041165034 -0.00067155901 0
0.69706792 0.4289912 -0.10660562 -0.00055056246 0.00042966305 -0.00071573083 0
0.69677061 0.42898387 -0.10646394 -0.00047975263 0.00045676241 -0.0007491365 0
0.69659716 0.42894897 -0.10663596 -0.00018662926 0.00042102882 -0.0008876397 0
0.69641757 0.42891541 -0.10679272 -0.0001402909 0.00039208672 -0.00090916798 0
0.69623029 0.42888352 -0.10692993 -0.00026783321 0.00036113121 -0.00089322432 0
0.6960001 0.42886129 -0.10695794 -0.00055964425 0.00035439068 -0.0007491365 0
0.69580179 0.42883185 -0.10706714 -0.00066981185 0.00031679738 -0.00067155901 0
0.69548309 0.42882949 -0.10686895 -0.00060792931 0.00030600594 -0.00073265436 0
0.69531322 0.42879367 -0.10705039 -0.00062380667 0.00031399791 -0.00071573083 0
0.69506967 0.42877448 -0.10704359 -0.00044394805 0.00046629307 -0.00076516729 0
0.6948337 0.42875358 -0.10705581 -0.00037790751 0.00046048168 -0.00080320763 0
0.6946016 0.4287318 -0.10707799 -0.00041436846 0.00050490943 -0.00075720885 0
0.69442332 0.42869785 -0.10723802 -0.00047005436 0.00057276298 -0.00067155901 0
0.69404638 0.42870897 -0.10688749 -0.00051091588 0.00053663156 -0.00067155901 0
0.693878 0.42867279 -0.10707286 -0.00050519482 0.00053062255 -0.00068060111 0
0.69364685 0.42865089 -0.1070964 -0.0004785498 0.00055477221 -0.00068060111 0
0.6933713 0.42863911 -0.10700533 -0.00055206451 0.00055206451 -0.00062485965 0
0.69319308 0.42860514 -0.10716519 -0.00051655999 0.00054255972 -0.00066241581 0
0.69291258 0.42859456 -0.10706082 -0.00028321915 0.00059881661 -0.0007491365 0
0.69280589 0.4285441 -0.10740593 -0.00019673865 0.00047496901 -0.00085772859 0
0.69259244 0.42851815 -0.10747495 -9.2984461e-05 0.00037121476 -0.00092387962 0
0.69225544 0.42852062 -0.10722306 5.8918384e-05 0.00029620284 -0.00095330609 0
0.69213325 0.42847365 -0.10752878 0.0003023188 8.3662897e-05 -0.00094952824 0
0.69207036 0.42841294 -0.10798922 0.00047125464 -1.1568603e-05 -0.00088192133 0
0.69190955 0.42837477 -0.10819533 0.00053483638 -1.3129438e-05 -0.00084485364 0
0.68175662 0.42749655 -0.10842595 -0.00034422835 0.00060764811 -0.00071573083 0
0.6814909 0.42748392 -0.10834476 -0.00019994695 0.00051834295 -0.00083146966 0
0.68133008 0.42744511 -0.10855213 -0.00034525024 0.00057601521 -0.00074095122 0
0.68113267 0.42741549 -0.10865876 -0.0004075391 0.00052221294 -0.0007491365 0
0.68092972 0.42738718 -0.10875031 -0.00048396926 0.00043864403 -0.00075720885 0
0.68061435 0.42738706 -0.10853085 -0.00055326748 0.00045405483 -0.00069837621 0
0.6803689 0.42736945 -0.10850438 -0.00052936864 0.00061368529 -0.00058579788 0
0.68011761 0.42735332 -0.10846117 -0.00054905645 0.00060579029 -0.00057580817 0
0.67992055 0.42732361 -0.1085684 -0.00056736905 0.0006259951 -0.00053499773 0
0.67971152 0.42729688 -0.10864225 -0.00034402788 0.00068346597 -0.00064383156 0
0.67949522 0.42727202 -0.10869566 -0.00035694585 0.00066779851 -0.00065317284 0
0.67934227 0.42723107 -0.10892573 -0.00041355885 0.00065308064 -0.00063439325 0
0.67907083 0.42722014 -0.10882559 -0.00040704093 0.00060917961 -0.00068060111 0
0.67882073 0.42720383 -0.10878435 -0.00043600702 0.00061908248 -0.00065317284 0
0.67857623 0.42718619 -0.10875842 -0.00040936269 0.00064645422 -0.00064383156 0
0.67837626 0.42715716 -0.10885701 -0.00044510578 0.00063200161 -0.00063439325 0
0.67815286 0.42713413 -0.10888997 -0.00059118104 0.00050995633 -0.00062485965 0
0.67796111 0.42710301 -0.10901156 -0.00051091588 0.00053663156 -0.00067155901 0
0.67766416 0.42709881 -0.10883752 -0.00054195774 0.00046749593 -0.00069837621 0
0.67744052 0.42707592 -0.10886911 -0.00061524444 0.00034853161 -0.00070710678 0
0.67727911 0.42703697 -0.10907593 -0.00054666388 0.00040543338 -0.00073265436 0
0.67690641 0.42705244 -0.10868677 -0.00059740175 0.00037830035 -0.00070710678 0
0.6768139 0.42699575 -0.10908815 -0.00038262724 0.00044357131 -0.00081045716 0
0.67644244 0.42701101 -0.10870102 -0.00044034031 0.00056424382 -0.00069837621 0
0.67634785 0.42695481 -0.10909691 -0.00057307974 0.00057307974 -0.00058579788 0
0.67605174 0.42695069 -0.10892221 -0.00061908248 0.00053402421 -0.00057580817 0
0.67584443 0.42692363 -0.10899875 -0.00057095761 0.00054359675 -0.00061523169 0
0.67564708 0.42689398 -0.10910371 -0.00040704093 0.00060917961 -0.00068060111 0
0.67548746 0.42685446 -0.10931614 -0.00036528881 0.00051867031 -0.00077301048 0
0.67522776 0.42684102 -0.10924354 -0.00043503448 0.00055744505 -0.00070710678 0
0.67505813 0.42680407 -0.1094276 -0.00042422718 0.00054359675 -0.00072424713 0
0.67468458 0.42682052 -0.1090292 -0.00049978646 0.00057939137 -0.00064383156 0
0.67453754 0.42677763 -0.10927764 -0.00051836605 0.00049352541 -0.00069837621 0
0.67426717 0.42676714 -0.10917297 -0.00051912217 0.00057276298 -0.00063439325 0
0.67412335 0.42672336 -0.10943106 -0.00053445145 0.00058967614 -0.00060551113 0
0.67372513 0.42674664 -0.10895839 -0.00038928314 0.00064947968 -0.00065317284 0
0.67364252 0.42668667 -0.10939261 -0.00052463333 0.00060819584 -0.00059569936 0
0.67343426 0.42665988 -0.10946551 -0.00048703476 0.00065669022 -0.00057580817 0
0.67318285 0.4266445 -0.10941395 -0.00041355885 0.00065308064 -0.00063439325 0
0.67292696 0.42663035 -0.10934928 -0.0002384001 0.00061802898 -0.0007491365 0
0.67270589 0.42660695 -0.10938463 -0.00018993771 0.00057494966 -0.00079583697 0
0.67253375 0.42657059 -0.10956165 -0.00036411994 0.0005750081 -0.00073265436 0
0.67228854 0.42655364 -0.10952684 -0.0005588432 0.00058697117 -0.00058579788 0
0.67210305 0.42652082 -0.10966524 -0.00058307266 0.00058307266 -0.00056573178 0
0.67186344 0.42650241 -0.10964659 -0.00047407951 0.00063922215 -0.00060551113 0
0.6716125 0.42648709 -0.10959432 -0.00043375438 0.00064915913 -0.00062485965 0
0.67144382 0.42644966 -0.10978165 -0.00043143347 0.00058172061 -0.0006895407 0
0.67112929 0.4264515 -0.10954341 -0.00042663477 0.00049458828 -0.00075720885 0
0.67088783 0.42643374 -0.10951796 -0.00062558911 0.00044058956 -0.00064383156 0
0.67075652 0.42638621 -0.10981455 -0.00059694285 0.00051492645 -0.00061523169 0
0.67042351 0.42639321 -0.1095207 -0.00057336519 0.00049458828 -0.00065317284 0
0.67023432 0.42636132 -0.10964778 -0.0004785498 0.00055477221 -0.00068060111 0
0.67006612 0.42632374 -0.10983637 -0.00034444837 0.00054394337 -0.00076516729 0
0.66981632 0.4263083 -0.10978535 -0.00050429214 0.00045706358 -0.00073265436 0
0.66963458 0.42627436 -0.10993436 -0.00060023647 0.000320833 -0.00073265436 0
0.66936088 0.42626548 -0.10981265 -0.00065960863 0.00041769235 -0.00062485965 0
0.66918296 0.42623049 -0.10997286 -0.00060351792 0.00049529434 -0.00062485965 0
0.66892171 0.42621827 -0.10988691 -0.00051655999 0.00054255972 -0.00066241581 0
0.66861784 0.42621779 -0.1096743 -0.00031226061 0.00058419839 -0.0007491365 0
0.6683557 0.42620596 -0.10958472 -0.00033314002 0.00066183548 -0.00067155901 0
0.66819698 0.4261657 -0.1098015 -0.00042122306 0.00056795345 -0.00070710678 0
0.6680218 0.42612991 -0.10996976 -0.00049999997 0.00049999997 -0.00070710678 0
0.66779739 0.4261077 -0.1099917 -0.00044034031 0.00056424382 -0.00069837621 0
0.6676048 0.42607671 -0.11010841 -0.00034140775 0.00063872879 -0.0006895407 0
0.66742939 0.42604092 -0.11027625 -0.00049529434 0.00060351792 -0.00062485965 0
0.66712713 0.42604032 -0.11006537 -0.00058793771 0.00058793771 -0.00055557035 0
0.66693234 0.42600989 -0.11017528 -0.00056858792 0.00059720629 -0.00056573178 0
0.666219 0.4259547 -0.11011752 -0.00012358806 0.0003741064 -0.00091911387 0
0.66606319 0.42591339 -0.1103442 -0.00020833562 0.00034758699 -0.00091420976 0
0.66583991 0.42589092 -0.1103681 -0.00015335021 0.00028689799 -0.00094560737 0
0.66563934 0.4258621 -0.11046055 -9.2984468e-05 0.00022448431 -0.00097003125 0
0.66546392 0.42582622 -0.11062869 -2.2406037e-05 0.00018166329 -0.00098310551 0
0.66528094 0.42579246 -0.11077407 4.9431957e-05 0.00013815307 -0.00098917657 0
0.66509509 0.4257594 -0.11091116 9.584026e-05 0.00011110551 -0.00098917657 0
0.66490233 0.42572832 -0.11102721 9.1471753e-05 0.0001298799 -0.00098730146 0
0.66476405 0.42568177 -0.1113092 0.00011505247 0.00010953905 -0.00098730146 0
0.66453451 0.42566106 -0.11131385 0.00011370084 7.2000264e-05 -0.00099090266 0
0.66434437 0.42562914 -0.11143818 0.00013689835 5.2807522e-05 -0.00098917657 0
0.66419625 0.42558524 -0.11169097 0.00019509031 0 -0.00098078535 0
0.66402793 0.42554706 -0.11188236 0.00018722651 -8.8551467e-05 -0.00097831734 0
0.6636132 0.42540628 -0.11273494 0.00054207101 -0.0001217261 -0.00083146966 0
0.70934427 0.43032232 -0.10570565 -0.00064264191 0.00070904597 -0.00029028472 0
0.70900208 0.43032229 -0.10547587 -0.00065524154 0.00072294753 -0.0002191013 0
0.70883733 0.43028608 -0.10566941 -0.00072294765 0.00065524137 -0.0002191013 0
0.70842528 0.43030038 -0.10527155 -0.0007741123 0.00057412055 -0.00026671286 0
0.70814747 0.43028736 -0.10519412 -0.00081142318 0.00051382784 -0.0002785197 0
0.7078793 0.4302724 -0.10513934 -0.00076421531 0.00051063229 -0.00039399203 0
0.7077468 0.43022954 -0.10540983 -0.00042426243 0.00040393134 -0.00081045716 0
0.70753008 0.43020403 -0.10547832 -0.00026338137 0.00052324886 -0.00081045716 0
0.70732236 0.43017662 -0.10556832 -0.00023738951 0.00053554209 -0.00081045716 0
0.70713091 0.43014583 -0.1056976 -0.00046186295 0.00053542753 -0.00070710678 0
0.70679176 0.43014559 -0.10547075 -0.00061098044 0.00055376021 -0.00056573178 0
0.70652467 0.43013048 -0.10541716 -0.00068562094 0.00045811725 -0.00056573178 0
0.70612651 0.43014267 -0.1050463 -0.00055056246 0.00042966305 -0.00071573083 0
0.70599878 0.43009871 -0.10532889 -0.00036801849 0.00055077841 -0.0007491365 0
0.70583677 0.43006185 -0.10552868 -0.00023171907 0.00055941916 -0.00079583697 0
0.70560384 0.43003973 -0.10555664 -0.00032394697 0.0005115681 -0.00079583697 0
0.70543975 0.43000326 -0.10575172 -0.00048036821 0.00058533036 -0.00065317284 0
0.70517731 0.42998731 -0.10570797 -0.00048541694 0.00059148227 -0.00064383156 0
0.70495498 0.42996296 -0.1057615 -0.00049978646 0.00057939137 -0.00064383156 0
0.70473802 0.42993754 -0.10582784 -0.00044034031 0.00056424382 -0.00069837621 0
0.70446998 0.42992285 -0.1057696 -0.00043864414 0.00048396911 -0.00075720885 0
0.70418507 0.42991173 -0.10566983 -0.00049759238 0.0004509913 -0.00074095122 0
0.70402694 0.42987391 -0.10587952 -0.00051746273 0.00046900075 -0.00071573083 0
0.70381379 0.42984766 -0.1059548 -0.00046299037 0.00041962991 -0.00078073726 0
0.70358872 0.42982396 -0.10600075 -0.00046306715 0.00048637445 -0.00074095122 0
0.70334852 0.42980346 -0.10600951 -0.00038308825 0.00057333196 -0.00072424713 0
0.70302379 0.42980093 -0.10581043 -0.00042422718 0.00054359675 -0.00072424713 0
0.7029084 0.42975396 -0.1061255 -0.00046900086 0.00051746261 -0.00071573083 0
0.70254862 0.42975894 -0.1058394 -0.00047546622 0.00049939763 -0.00072424713 0
0.70234728 0.42973024 -0.10594264 -0.00046839856 0.00046839856 -0.0007491365 0
0.70214444 0.42970186 -0.10604247 -0.00047005448 0.00042603243 -0.00077301048 0
0.70200592 0.42965969 -0.10630116 -0.00049759238 0.0004509913 -0.00074095122 0
0.70170021 0.42965332 -0.10614666 -0.00060468778 0.00038291418 -0.00069837621 0
0.70134896 0.42965674 -0.1058788 -0.00046961731 0.00036649287 -0.00080320763 0
0.70119822 0.42961723 -0.10610703 -0.00026369939 0.00041642672 -0.00087008701 0
0.70106691 0.42957342 -0.10638401 -0.0002534003 0.00044731415 -0.00085772859 0
0.70081598 0.42955536 -0.1063641 -0.0003026652 0.00047796048 -0.00082458934 0
0.70058554 0.42953289 -0.1063948 -0.00050519482 0.00053062255 -0.00068060111 0
0.70039535 0.42950177 -0.10652545 -0.0005588432 0.00058697117 -0.00058579788 0
0.700064 0.42950118 -0.10630456 -0.00057307974 0.00057307974 -0.00058579788 0
0.69980967 0.42948401 -0.10627493 -0.00052463333 0.00060819584 -0.00059569936 0
0.69960141 0.42945677 -0.10636023 -0.00051385496 0.00056695146 -0.00064383156 0
0.69937885 0.42943266 -0.10640976 -0.00038291435 0.00060468772 -0.00069837621 0
0.69903809 0.42943436 -0.10616282 -0.00046089242 0.00059057889 -0.00066241581 0
0.69889224 0.42939353 -0.10640416 -0.00047524704 0.00057909027 -0.00066241581 0
0.69877982 0.42934534 -0.10672984 -0.00041619796 0.00062288402 -0.00066241581 0
0.69843894 0.42934719 -0.1064814 -0.00048962404 0.00062739511 -0.00060551113 0
0.69821227 0.429324 -0.10651991 -0.00034989882 0.00058377086 -0.00073265436 0
0.69799262 0.42929935 -0.10657576 -0.00049382658 0.00049382658 -0.00071573083 0
0.69778347 0.42927235 -0.10665789 -0.00051091588 0.00046306703 -0.00072424713 0
0.69753742 0.42925346 -0.10664716 -0.00054905633 0.00038668906 -0.00074095122 0
0.69732279 0.42922771 -0.10671529 -0.00062288414 0.00041619781 -0.00066241581 0
0.69709951 0.42920381 -0.10676149 -0.00058533036 0.00048036821 -0.00065317284 0
0.69680399 0.42919597 -0.10662451 -0.00051746273 0.00046900075 -0.00071573083 0
0.69661301 0.42916495 -0.10675231 -0.0003026652 0.00047796048 -0.00082458934 0
0.69639677 0.42913955 -0.10681608 -0.00016455415 0.00049811252 -0.00085135532 0
0.69622719 0.42910373 -0.10699841 -0.00019974266 0.00035259512 -0.00091420976 0
0.6958617 0.42911163 -0.10668167 -0.00047796054 0.00030266505 -0.00082458934 0
0.69569927 0.42907423 -0.10688213 -0.00063846237 0.00028301083 -0.00071573083 0
0.6954788 0.42904973 -0.10693452 -0.00061591435 0.00031002524 -0.00072424713 0
0.69518113 0.42904264 -0.10678926 -0.0006081959 0.00045106863 -0.00065317284 0
0.69499511 0.42901051 -0.10692945 -0.00045405483 0.00055326748 -0.00069837621 0
0.6948058 0.42897907 -0.10706124 -0.00037309818 0.00055838074 -0.00074095122 0
0.69456154 0.42896003 -0.107052 -0.00043135881 0.00061248249 -0.00066241581 0
0.69437623 0.42892763 -0.10719422 -0.00044510578 0.00063200161 -0.00063439325 0
0.6941247 0.42891026 -0.10716584 -0.00051212008 0.00048757874 -0.00070710678 0
0.69384503 0.42889929 -0.10706487 -0.00045405483 0.00055326748 -0.00069837621 0
0.69371104 0.42885524 -0.10733905 -0.00040715784 0.00057811977 -0.00070710678 0
0.69351345 0.42882565 -0.1074495 -0.00055206451 0.00055206451 -0.00062485965 0
0.69311547 0.42884162 -0.10704216 -0.00049759238 0.00054900849 -0.00067155901 0
0.69288671 0.42881918 -0.10707119 -0.00038799716 0.00058067858 -0.00071573083 0
0.69268513 0.42879051 -0.10717073 -0.00030799207 0.00054368208 -0.00078073726 0
0.69248813 0.42876083 -0.10728207 -0.00019102939 0.00043095538 -0.00088192133 0
0.69229561 0.42873007 -0.10740498 -9.839618e-05 0.0002978495 -0.00094952824 0
0.69206274 0.42870855 -0.1074231 0.0002114138 0.00011976445 -0.00097003125 0
0.69202042 0.42864326 -0.10793707 0.00043808791 2.1521879e-05 -0.00089867448 0
0.69181085 0.42861634 -0.10801616 0.00048844796 -0.00012234987 -0.00086397282 0
0.68156278 0.42768246 -0.10862431 -0.00025469429 0.00034341545 -0.0009039893 0
0.68134993 0.42765659 -0.10868874 -0.00029905085 0.00036439454 -0.00088192133 0
0.68110067 0.42763978 -0.10865262 -0.00046048168 0.00037790751 -0.00080320763 0
0.68082792 0.42762887 -0.10855129 -0.00051867031 0.00036528881 -0.00077301048 0
0.68065715 0.42759258 -0.10873148 -0.00056736893 0.00035928228 -0.00074095122 0
0.68042028 0.42757276 -0.10872892 -0.00061908248 0.00043600702 -0.00065317284 0
0.68016553 0.42755744 -0.10867646 -0.00048396911 0.00056105468 -0.00067155901 0
0.6800335 0.42751133 -0.10896441 -0.00052942109 0.00058412604 -0.00061523169 0
0.67962855 0.42753378 -0.10849407 -0.00036411994 0.0005750081 -0.00073265436 0
0.67945421 0.42749834 -0.10866418 -0.00042122306 0.00056795345 -0.00070710678 0
0.67932183 0.42745227 -0.10895148 -0.00042186823 0.00059900689 -0.00068060111 0
0.67913318 0.42742035 -0.10908231 -0.00045038914 0.00052212615 -0.00072424713 0
0.67890024 0.42739958 -0.10908958 -0.00051746273 0.00046900075 -0.00071573083 0
0.67868054 0.42737556 -0.10913333 -0.00043644162 0.00058847334 -0.00068060111 0
0.67844176 0.42735633 -0.10912374 -0.00050995633 0.00059118104 -0.00062485965 0
0.67812008 0.42735821 -0.10888126 -0.00054359686 0.00057095749 -0.00061523169 0
0.67792314 0.42732841 -0.10898826 -0.00044955479 0.00063831877 -0.00062485965 0
0.67777508 0.42728615 -0.10923275 -0.00048703476 0.00065669022 -0.00057580817 0
0.67752802 0.4272691 -0.1091989 -0.00055384426 0.00058172061 -0.00059569936 0
0.6771152 0.42729449 -0.10869744 -0.00050954946 0.00062088779 -0.00059569936 0
0.676974 0.42725044 -0.10896125 -0.00057333207 0.00060218928 -0.00055557035 0
0.67679977 0.42721486 -0.10913202 -0.00043644162 0.00058847334 -0.00068060111 0
0.67658561 0.42718947 -0.10918996 -0.00037714952 0.00066576205 -0.00064383156 0
0.67632818 0.42717522 -0.10912523 -0.00044623829 0.00066784257 -0.00059569936 0
0.67612088 0.4271481 -0.10920236 -0.00049529434 0.00060351792 -0.00062485965 0
0.67584682 0.42713821 -0.10908988 -0.00048033422 0.0006154913 -0.00062485965 0
0.67561078 0.42711857 -0.10908499 -0.00041769253 0.00065960846 -0.00062485965 0
0.67538363 0.42709661 -0.10910496 -0.00047486383 0.00047486383 -0.00074095122 0
0.67516083 0.42707357 -0.10913721 -0.00046629316 0.00044394794 -0.00076516729 0
0.67484331 0.42707515 -0.10889903 -0.00047305858 0.00045038914 -0.00075720885 0
0.67474443 0.4270198 -0.10928497 -0.00044485118 0.00049081753 -0.0007491365 0
0.67451328 0.42699894 -0.10929289 -0.00044455007 0.00051535701 -0.00073265436 0
0.67420769 0.42699757 -0.10908738 -0.00048962404 0.00062739511 -0.00060551113 0
0.67404556 0.42695868 -0.10929272 -0.00052311388 0.0006374162 -0.00056573178 0
0.6738826 0.42691994 -0.10949621 -0.00047480527 0.00067417166 -0.00056573178 0
0.67367017 0.42689419 -0.10955742 -0.0005274787 0.00064273464 -0.00055557035 0
0.67341942 0.42687857 -0.10950801 -0.00049120735 0.00066231634 -0.00056573178 0
0.67307675 0.42688721 -0.10919335 -0.00043798189 0.00065548602 -0.00061523169 0
0.67286879 0.42686033 -0.10926667 -0.00026065289 0.00067571725 -0.0006895407 0
0.67269576 0.42682424 -0.10944095 -0.00029004374 0.00065432809 -0.00069837621 0
0.67251813 0.42678928 -0.109602 -0.00046479088 0.00056634931 -0.00068060111 0
0.67233419 0.42675602 -0.10974517 -0.00060917967 0.00040704082 -0.00068060111 0
0.67213428 0.42672697 -0.10984191 -0.00058793783 0.00039284746 -0.00070710678 0
0.67181772 0.42672902 -0.10959962 -0.00038909449 0.00045106863 -0.00080320763 0
0.6716513 0.42669106 -0.10979345 -0.00045038926 0.00047305846 -0.00075720885 0
0.67141956 0.42667049 -0.10979727 -0.00052611169 0.00043176865 -0.00073265436 0
0.67119354 0.42664853 -0.1098173 -0.00054195774 0.00046749593 -0.00069837621 0
0.67091191 0.4266414 -0.10967484 -0.00064645434 0.00040936252 -0.00064383156 0
0.67075396 0.42660111 -0.10989359 -0.00059900689 0.00042186823 -0.00068060111 0
0.6704427 0.42660204 -0.10966358 -0.00058067864 0.00038799699 -0.00071573083 0
0.6703527 0.42654341 -0.11008176 -0.00051713042 0.0003835299 -0.00076516729 0
0.66994929 0.42656934 -0.10958019 -0.00041963003 0.00046299028 -0.00078073726 0
0.66981387 0.42652294 -0.10986516 -0.0004863746 0.00046306703 -0.00074095122 0
0.66956103 0.42650828 -0.10980496 -0.00049768854 0.0004084424 -0.00076516729 0
0.66937697 0.42647493 -0.10994729 -0.00055507349 0.0005030891 -0.00066241581 0
0.66908354 0.42647141 -0.10976657 -0.00046961743 0.00063320569 -0.00061523169 0
0.66884106 0.42645407 -0.10973576 -0.00042971419 0.00067859271 -0.00059569936 0
0.66865414 0.42642152 -0.10986933 -0.00040529101 0.00067618722 -0.00061523169 0
0.6684705 0.42638806 -0.1100128 -0.00034755431 0.00069047179 -0.00063439325 0
0.66818815 0.42638168 -0.10986295 -0.00042510423 0.00063621323 -0.00064383156 0
0.667992 0.4263517 -0.10996899 -0.00042122306 0.00056795345 -0.00070710678 0
0.66777778 0.4263266 -0.11002132 -0.00034865816 0.00049505656 -0.00079583697 0
0.66755009 0.42630529 -0.11003324 -0.0003471534 0.00051955157 -0.00078073726 0
0.66741455 0.4262585 -0.11032012 -0.00041602226 0.00056094106 -0.00071573083 0
0.66713798 0.42625067 -0.11018607 -0.00060351792 0.00049529434 -0.00062485965 0
0.66684079 0.42624864 -0.10998961 -0.00067979691 0.00045422575 -0.00057580817 0
0.66663539 0.42622119 -0.11006746 -0.00057909027 0.00047524704 -0.00066241581 0
0.66642863 0.42619416 -0.11014107 -0.00034180438 0.00051154627 -0.00078834646 0
0.66622198 0.42616704 -0.11021522 -0.00015387495 0.00039890577 -0.0009039893 0
0.66598654 0.42614797 -0.11020252 -0.00017774543 0.00040098725 -0.00089867448 0
0.66581202 0.42611188 -0.11037311 -0.0001642205 0.00037047546 -0.00091420976 0
0.66563278 0.4260771 -0.11052975 -0.00013333408 0.00032189686 -0.00093733903 0
0.66545248 0.42604256 -0.11068347 -4.972181e-05 0.00024996841 -0.00096697645 0
0.66524518 0.42601559 -0.11075547 5.0827493e-06 0.00020704903 -0.00097831734 0
0.66504562 0.42598647 -0.11085072 5.6151268e-05 0.00013556116 -0.00098917657 0
0.66485655 0.42595431 -0.11097828 7.4885145e-05 0.00014010028 -0.00098730146 0
0.66471279 0.42590943 -0.1112431 5.1958374e-05 9.7207303e-05 -0.00099390699 0
0.66449732 0.42588469 -0.11129054 6.2181389e-05 7.5768243e-05 -0.00099518476 0
0.66429335 0.42585674 -0.11137274 7.755978e-05 3.6683043e-05 -0.00099631259 0
0.66414022 0.42581433 -0.11161008 0.00015499811 3.4805991e-05 -0.00098730146 0
0.66397578 0.42577508 -0.11181334 0.00021804606 -2.147558e-05 -0.00097570219 0
0.66379452 0.4257406 -0.11196521 0.00034674094 -3.4150871e-05 -0.00093733903 0
0.66363639 0.42569944 -0.11218831 0.00044839311 -3.3075477e-05 -0.00089322432 0
0.70915633 0.43051308 -0.10591623 -0.00064938178 0.00071648223 -0.00025486571 0
0.70893872 0.4304876 -0.105984 -0.00074441615 0.00064213783 -0.00018303999 0
0.70874965 0.43045628 -0.10611972 -0.00079985743 0.00056332315 -0.00020711141 0
0.70810932 0.43051699 -0.10517505 -0.00085279724 0.00045582943 -0.00025486571 0
0.70789707 0.43049052 -0.10525438 -0.00078950386 0.00052752951 -0.00031368172 0
0.70760137 0.43048111 -0.10513321 -0.00048396911 0.00056105468 -0.00067155901 0
0.7074216 0.430448 -0.1052902 -0.00021980725 0.00046474341 -0.00085772859 0
0.70728743 0.43040556 -0.10555688 -0.00030625059 0.00051094819 -0.00080320763 0
0.70709252 0.43037546 -0.10567793 -0.00046749593 0.00054195774 -0.00069837621 0
0.70677429 0.43037078 -0.10550138 -0.00059271429 0.00059271429 -0.00054532511 0
0.70647967 0.43036133 -0.10538122 -0.00062120747 0.00059143861 -0.00051410275 0
0.70622385 0.43034387 -0.10535446 -0.00047407951 0.00063922215 -0.00060551113 0
0.70603859 0.43031183 -0.10549816 -0.00027715738 0.00066911691 -0.0006895407 0
0.7058543 0.43027961 -0.1056442 -0.00023527592 0.00065755198 -0.00071573083 0
0.70568204 0.43024483 -0.10581955 -0.00035425532 0.00050300395 -0.00078834646 0
0.70537055 0.43023899 -0.10565707 -0.00050579704 0.0004815587 -0.00071573083 0
0.70523101 0.43019742 -0.10591188 -0.00057276298 0.00047005436 -0.00067155901 0
0.70501089 0.43017256 -0.10597077 -0.00051091588 0.00053663156 -0.00067155901 0
0.70470071 0.43016657 -0.10581031 -0.00042636044 0.0005748804 -0.00069837621 0
0.70447719 0.43014246 -0.10586086 -0.00042636044 0.0005748804 -0.00069837621 0
0.70415753 0.43013853 -0.1056762 -0.00038668906 0.00054905633 -0.00074095122 0
0.70390439 0.43012071 -0.10565367 -0.00040213074 0.00057098182 -0.00071573083 0
0.70370203 0.43009222 -0.10575506 -0.00037830049 0.00059740164 -0.00070710678 0
0.70353293 0.43005669 -0.10593799 -0.00041702733 0.00059213332 -0.0006895407 0
0.70334542 0.43002504 -0.10607591 -0.00043143347 0.00058172061 -0.0006895407 0
0.70315707 0.42999357 -0.10621175 -0.00045075204 0.00057758525 -0.00068060111 0
0.70288038 0.42998075 -0.10613063 -0.00042664565 0.00060579029 -0.00067155901 0
0.70262724 0.42996299 -0.10610703 -0.00046749593 0.00054195774 -0.00069837621 0
0.70231259 0.42995828 -0.10593143 -0.00049382658 0.00049382658 -0.00071573083 0
0.70213056 0.42992547 -0.10608259 -0.00048396911 0.00056105468 -0.00067155901 0
0.70198011 0.42988592 -0.10631189 -0.00048501565 0.00062148995 -0.00061523169 0
0.70169055 0.42987597 -0.10619709 -0.00055744505 0.00055744505 -0.00061523169 0
0.70147932 0.42984936 -0.10627601 -0.00045405483 0.00055326748 -0.00069837621 0
0.70120341 0.42983657 -0.10619453 -0.00021792039 0.00056493736 -0.00079583697 0
0.70107532 0.42979214 -0.10647967 -0.00026668416 0.00049893087 -0.00082458934 0
0.70083249 0.42977229 -0.10647967 -0.0002698506 0.0003457815 -0.00089867448 0
0.70054579 0.42976189 -0.1063706 -0.00050012174 0.00039029872 -0.00077301048 0
0.70038927 0.42972347 -0.10658547 -0.00057095755 0.00044557956 -0.0006895407 0
0.70020837 0.4296903 -0.10673955 -0.00053663168 0.00051091576 -0.00067155901 0
0.6998207 0.42970175 -0.10637751 -0.00047558054 0.00060939998 -0.00063439325 0
0.69958997 0.42967939 -0.10640678 -0.00046249345 0.00065669022 -0.00059569936 0
0.69939446 0.42964941 -0.1065239 -0.00042577091 0.0006723656 -0.00060551113 0
0.69918209 0.42962304 -0.10659894 -0.00044623829 0.00066784257 -0.00059569936 0
0.69897366 0.42959583 -0.10668382 -0.00049415871 0.00063320569 -0.00059569936 0
0.69866681 0.42959005 -0.10652146 -0.00042186823 0.00059900689 -0.00068060111 0
0.69847971 0.42955819 -0.10665956 -0.00052971934 0.00052971934 -0.00066241581 0
0.69829166 0.42952654 -0.10679528 -0.00043743986 0.00053302204 -0.00072424713 0
0.6978935 0.4295409 -0.10640141 -0.0004785498 0.00055477221 -0.00068060111 0
0.69781643 0.42948493 -0.10681704 -0.00050609815 0.00050609815 -0.00069837621 0
0.69742924 0.429497 -0.10644946 -0.00054195774 0.00046749593 -0.00069837621 0
0.69734967 0.42944151 -0.10685918 -0.00055985065 0.00053302204 -0.00063439325 0
0.69705832 0.42943257 -0.10673335 -0.00048396911 0.00056105468 -0.00067155901 0
0.69682384 0.42941114 -0.10675105 -0.00049939775 0.00047546611 -0.00072424713 0
0.69658303 0.42939115 -0.10675243 -0.00032914747 0.0005197805 -0.00078834646 0
0.6963805 0.42936268 -0.10685083 -0.00027123807 0.00057348469 -0.00077301048 0
0.69622636 0.42932346 -0.10707262 -0.00034805611 0.00044599257 -0.00082458934 0
0.69601154 0.42929769 -0.10714003 -0.00042422715 0.00044557956 -0.00078834646 0
0.69569188 0.42929524 -0.10693976 -0.00060579029 0.00042664565 -0.00067155901 0
0.69549048 0.42926651 -0.10704097 -0.00057758536 0.00045075192 -0.00068060111 0
0.69519782 0.42925817 -0.10690859 -0.00042663477 0.00049458828 -0.00075720885 0
0.69496298 0.42923689 -0.10692403 -0.00042023204 0.00051205419 -0.0007491365 0
0.69474512 0.42921185 -0.1069825 -0.00029722878 0.00046937543 -0.00083146966 0
0.69465661 0.42915782 -0.10737297 -0.00044455007 0.00051535701 -0.00073265436 0
0.69434214 0.42915446 -0.10718355 -0.00053663168 0.00051091576 -0.00067155901 0
0.69416398 0.42912051 -0.107344 -0.00052881666 0.0004561604 -0.00071573083 0
0.69391376 0.42910275 -0.10731921 -0.00048065552 0.00053032156 -0.00069837621 0
0.69359869 0.42909968 -0.10712668 -0.00043503448 0.00055744505 -0.00070710678 0
0.69344068 0.42906114 -0.10733905 -0.00053542753 0.00053542753 -0.00065317284 0
0.69323176 0.42903408 -0.10742018 -0.00046479088 0.00056634931 -0.00068060111 0
0.69295329 0.42902285 -0.10732093 -0.00044858377 0.00054660096 -0.00070710678 0
0.69277233 0.42898947 -0.1074743 -0.00034054971 0.00056817284 -0.0007491365 0
0.69259298 0.4289557 -0.10763159 -0.00032914747 0.0005197805 -0.00078834646 0
0.69224292 0.4289608 -0.10734591 -0.00021680312 0.00034236946 -0.00091420976 0
0.69211113 0.42891619 -0.10762694 0.00010375401 0.00010375401 -0.00098917657 0
0.69197214 0.42887315 -0.10788932 0.00028810164 3.5533951e-05 -0.00095694035 0
0.69178814 0.4288404 -0.10803506 0.00036882103 -0.00010206638 -0.00092387962 0
0.68155366 0.42790121 -0.10868111 -0.0004703888 0.0003143037 -0.00082458934 0
0.68135852 0.42787096 -0.10879442 -0.00036352553 0.00036352553 -0.00085772859 0
0.68107611 0.42786229 -0.10866699 -0.00045255269 0.00043086591 -0.00078073726 0
0.68091583 0.42782336 -0.10887638 -0.00044394805 0.00046629307 -0.00076516729 0
0.68062133 0.42781782 -0.10871467 -0.0004561604 0.00052881666 -0.00071573083 0
0.68050057 0.42776906 -0.10903355 -0.00053302216 0.00055985054 -0.00063439325 0
0.68024719 0.42775327 -0.10898533 -0.00047407951 0.00063922215 -0.00060551113 0
0.68003678 0.42772681 -0.10905597 -0.00054426986 0.00060050911 -0.00058579788 0
0.67984772 0.42769498 -0.10918608 -0.00048065552 0.00053032156 -0.00069837621 0
0.67954147 0.42769247 -0.10898998 -0.00048396926 0.00043864403 -0.00075720885 0
0.6793021 0.42767328 -0.10897949 -0.00035485759 0.00047847003 -0.00080320763 0
0.67902672 0.42766318 -0.10886821 -0.00041702742 0.00039704304 -0.00081758481 0
0.67891121 0.42761287 -0.10920325 -0.00048302289 0.00039640663 -0.00078073726 0
0.67857993 0.42761689 -0.10893503 -0.00045038914 0.00052212615 -0.00072424713 0
0.67843485 0.42757398 -0.10918751 -0.00047305846 0.00054840615 -0.0006895407 0
0.67822635 0.42754707 -0.10926256 -0.00045945743 0.00055985054 -0.0006895407 0
0.67793852 0.42754024 -0.10911492 -0.00045580964 0.00061458809 -0.00064383156 0
0.67762363 0.42754036 -0.10889038 -0.00047480527 0.00067417166 -0.00056573178 0
0.67746007 0.4275021 -0.10909125 -0.00050100323 0.00071136991 -0.00049289817 0
0.67724794 0.42747611 -0.10915539 -0.00045547303 0.00071927044 -0.00052458973 0
0.67696017 0.42746949 -0.10900602 -0.00050444831 0.00071626157 -0.00048218391 0
0.67682654 0.42742351 -0.10929146 -0.00048647355 0.00069073937 -0.00053499773 0
0.67658651 0.42740467 -0.10927668 -0.0004013791 0.00066966057 -0.00062485965 0
0.67638123 0.42737702 -0.10935977 -0.00049039267 0.00059754518 -0.00063439325 0
0.67621255 0.42733991 -0.10954675 -0.00045393629 0.00064454001 -0.00061523169 0
0.67583036 0.4273577 -0.10912743 -0.00043135881 0.00061248249 -0.00066241581 0
0.67559624 0.42733747 -0.10912779 -0.00047558054 0.00060939998 -0.00063439325 0
0.67544496 0.42729589 -0.10936412 -0.00054660096 0.00054660096 -0.00063439325 0
0.67525542 0.42726415 -0.1094915 -0.00052212633 0.00054840615 -0.00065317284 0
0.6749599 0.42725986 -0.10931638 -0.00055985054 0.00045945743 -0.0006895407 0
0.67479801 0.42722094 -0.10952297 -0.00037830049 0.00059740164 -0.00070710678 0
0.67456234 0.42720115 -0.10951826 -0.00032921234 0.00061591284 -0.00071573083 0
0.67437899 0.42716777 -0.10966334 -0.00040914194 0.00068261207 -0.00060551113 0
0.67404824 0.42717287 -0.10938564 -0.00042510423 0.00063621323 -0.00064383156 0
0.67390555 0.42712885 -0.1096473 -0.00049529434 0.00060351792 -0.00062485965 0
0.67368931 0.42710406 -0.10969779 -0.00051655999 0.00054255972 -0.00066241581 0
0.67342776 0.42709115 -0.10961756 -0.00058412622 0.00052942097 -0.00061523169 0
0.6732105 0.42706662 -0.10966489 -0.00051806471 0.00051806471 -0.00068060111 0
0.67300487 0.42703909 -0.10974535 -0.00028321915 0.00059881661 -0.0007491365 0
0.67282748 0.4270041 -0.10990772 -0.00031792326 0.00063160498 -0.00070710678 0
0.67261678 0.42697784 -0.1099737 -0.00036411994 0.0005750081 -0.00073265436 0
0.67228305 0.42698416 -0.10968277 -0.00058533036 0.00050490943 -0.00063439325 0
0.67207688 0.42695677 -0.10976121 -0.00056634931 0.00046479088 -0.00068060111 0
0.67187011 0.42692953 -0.10983804 -0.00034180438 0.00051154627 -0.00078834646 0
0.67161816 0.4269143 -0.10978326 -0.00045038914 0.00052212615 -0.00072424713 0
0.67142081 0.42688459 -0.10988721 -0.00051385496 0.00056695146 -0.00064383156 0
0.67115366 0.42687348 -0.10978737 -0.00057276309 0.00051912206 -0.00063439325 0
0.67090827 0.42685661 -0.1097506 -0.00067979685 0.00047876695 -0.00055557035 0
0.67072511 0.42682311 -0.10989591 -0.00058847346 0.00043644145 -0.00068060111 0
0.67040598 0.42682606 -0.1096426 -0.00053542753 0.00046186295 -0.00070710678 0
0.67032355 0.42676544 -0.11008313 -0.0005394012 0.00040004702 -0.00074095122 0
0.67002112 0.42676401 -0.10987797 -0.00033700606 0.0004544 -0.00082458934 0
0.66979754 0.42674136 -0.10990408 -0.00051713042 0.0003835299 -0.00076516729 0
0.66956711 0.42672056 -0.10991004 -0.00047486383 0.00047486383 -0.00074095122 0
0.66928029 0.42671502 -0.10974935 -0.0004863746 0.00046306703 -0.00074095122 0
0.6690861 0.4266845 -0.10986146 -0.00042664565 0.00060579029 -0.00067155901 0
0.66893327 0.42664272 -0.11009613 -0.00036069742 0.00067481719 -0.00064383156 0
0.6687203 0.42661726 -0.11015287 -0.00042392363 0.00070727384 -0.00056573178 0
0.66849864 0.42659414 -0.11018392 -0.00040298604 0.00071136991 -0.00057580817 0
0.66823721 0.42658186 -0.1100966 -0.00047480527 0.00067417166 -0.00056573178 0
0.66808963 0.42653856 -0.1103473 -0.00044626003 0.00060171192 -0.00066241581 0
0.66776061 0.42654487 -0.11005828 -0.00036070248 0.00048635097 -0.00079583697 0
0.6675455 0.42652005 -0.11010775 -0.0004107588 0.00043143329 -0.00080320763 0
0.66735494 0.42648846 -0.11023036 -0.00038262724 0.00044357131 -0.00081045716 0
0.66713965 0.42646366 -0.11027935 -0.00055985054 0.00045945743 -0.0006895407 0
0.6669414 0.42643416 -0.11037913 -0.00067618722 0.00040529101 -0.00061523169 0
0.6666193 0.42643893 -0.11010775 -0.0005969429 0.00046585873 -0.00065317284 0
0.66645986 0.42639875 -0.11032346 -0.00047305858 0.00045038914 -0.00075720885 0
0.66624981 0.42637253 -0.11038759 -0.00024819316 0.00043812222 -0.00086397282 0
0.66604757 0.42634416 -0.11047509 -0.00016875444 0.00038070389 -0.00090916798 0
0.66580105 0.42632809 -0.11042908 -0.00013062631 0.00039541151 -0.00090916798 0
0.66560197 0.42629886 -0.110526 -0.00010206654 0.00036882097 -0.00092387962 0
0.66539097 0.42627293 -0.11058685 -8.744737e-05 0.00034910944 -0.00093299284 0
0.66520441 0.42624015 -0.11072144 -0.00010869039 0.00028176926 -0.00095330609 0
0.66500467 0.42621106 -0.11081627 -3.5709301e-05 0.00017952279 -0.00098310551 0
0.66483641 0.42617312 -0.11100665 1.6172959e-05 0.00010902921 -0.00099390699 0
0.66468495 0.42613041 -0.11124846 2.4849633e-05 5.6059878e-05 -0.00099811808 0
0.66451502 0.42609283 -0.11143437 6.5709552e-05 3.3075412e-05 -0.00099729048 0
0.66433406 0.42605835 -0.11158696 8.1466882e-05 2.6913025e-05 -0.00099631259 0
0.66410601 0.42603719 -0.11159578 0.00017835345 7.9058656e-05 -0.00098078535 0
0.6639356 0.42599961 -0.11178109 0.00020242299 8.3846353e-05 -0.00097570219 0
0.66376579 0.42596191 -0.11196801 0.0003252122 7.9835127e-06 -0.00094560737 0
0.6635617 0.4259339 -0.11205027 0.00039292435 -2.8983855e-05 -0.00091911387 0
0.70915771 0.43073517 -0.10599175 -0.00068591564 0.00068591564 -0.0002429802 0
0.70892221 0.43071327 -0.10601678 -0.00074759335 0.00064487843 -0.00015885817 0
0.7087388 0.43068081 -0.10616633 -0.00079138257 0.00058692903 -0.00017096194 0
0.70818824 0.43072283 -0.10543647 -0.00082653499 0.00052339735 -0.00020711141 0
0.70789379 0.430713 -0.10531887 -0.00078796863 0.00055495009 -0.00026671286 0
0.70764595 0.43069375 -0.10531273 -0.00054009398 0.00065810647 -0.00052458973 0
0.70738447 0.43067729 -0.1052734 -0.00025888989 0.00051432586 -0.00081758481 0
0.70723826 0.43063736 -0.10551134 -0.0002738396 0.00040982981 -0.00087008701 0
0.70708007 0.43059978 -0.10572067 -0.00045945751 0.00043743986 -0.00077301048 0
0.7068451 0.43057793 -0.10574499 -0.00056795345 0.00056795345 -0.00059569936 0
0.70655149 0.43056807 -0.10562751 -0.00058020878 0.00064016157 -0.00050353835 0
0.70643663 0.43052158 -0.1059418 -0.00044844826 0.00070817705 -0.00054532511 0
0.70598984 0.43054333 -0.10545322 -0.00032549287 0.00073430012 -0.00059569936 0
0.70587409 0.43049696 -0.10576525 -0.00031325582 0.00070669368 -0.00063439325 0
0.70565611 0.43047166 -0.10582981 -0.00038142432 0.00054158096 -0.0007491365 0
0.70548874 0.4304359 -0.1060172 -0.00049415865 0.00036649287 -0.00078834646 0
0.7051385 0.43043798 -0.10576019 -0.00058342988 0.00029367392 -0.00075720885 0
0.70492321 0.43041211 -0.10583094 -0.00052955502 0.00025046084 -0.00081045716 0
0.70466232 0.43039575 -0.10579035 -0.00050346396 0.00033640381 -0.00079583697 0
0.70460546 0.43033695 -0.10624722 -0.00052221306 0.00040753899 -0.0007491365 0
0.70425254 0.43033975 -0.10598192 -0.00042023204 0.00051205419 -0.0007491365 0
0.70397621 0.43032667 -0.105903 -0.00039704304 0.00056375784 -0.00072424713 0
0.70384383 0.43028352 -0.10617593 -0.0002384001 0.00061802898 -0.0007491365 0
0.70354074 0.43027607 -0.10603097 -0.00027580766 0.00062221201 -0.00073265436 0
0.70331848 0.43025169 -0.10608372 -0.00044034031 0.00056424382 -0.00069837621 0
0.70312834 0.4302206 -0.10621527 -0.00046585887 0.00059694285 -0.00065317284 0
0.70285612 0.43020678 -0.10614505 -0.00043359274 0.00068471761 -0.00058579788 0
0.70267057 0.43017468 -0.10628793 -0.00042971419 0.00067859271 -0.00059569936 0
0.70244294 0.43015146 -0.10632703 -0.00038928314 0.00064947968 -0.00065317284 0
